1230
39750.000000 44250.000000 62750.000000
36750.000000 41750.000000 59750.000000
41250.000000 45750.000000 64250.000000
40250.000000 45750.000000 64250.000000
40750.000000 45750.000000 64250.000000
39250.000000 44250.000000 62750.000000
40750.000000 45750.000000 64250.000000
37750.000000 43250.000000 61250.000000
35250.000000 42250.000000 59750.000000
37250.000000 43250.000000 61250.000000
36750.000000 43250.000000 61250.000000
37250.000000 43250.000000 61250.000000
38750.000000 44250.000000 62750.000000
35750.000000 41750.000000 59750.000000
40250.000000 45750.000000 64250.000000
39750.000000 46250.000000 64750.000000
39750.000000 45750.000000 64750.000000
38250.000000 44750.000000 63250.000000
40250.000000 45750.000000 64250.000000
36750.000000 43250.000000 61250.000000
34750.000000 43250.000000 59750.000000
36250.000000 43750.000000 61250.000000
35750.000000 44250.000000 61250.000000
36250.000000 43750.000000 61250.000000
37750.000000 44750.000000 62750.000000
35250.000000 42750.000000 59750.000000
39250.000000 46250.000000 64750.000000
38750.000000 47250.000000 64750.000000
39250.000000 46750.000000 64750.000000
37250.000000 45750.000000 62750.000000
39250.000000 46750.000000 64750.000000
35750.000000 44750.000000 61250.000000
33750.000000 44250.000000 59750.000000
35250.000000 45250.000000 61250.000000
35250.000000 45750.000000 61250.000000
35750.000000 44750.000000 61250.000000
37250.000000 46250.000000 63250.000000
34250.000000 43750.000000 59750.000000
38750.000000 47250.000000 64750.000000
38250.000000 48250.000000 64750.000000
38250.000000 48250.000000 64750.000000
36750.000000 46750.000000 62750.000000
38750.000000 47750.000000 64750.000000
35250.000000 45750.000000 61250.000000
32750.000000 46250.000000 59750.000000
34750.000000 46750.000000 61250.000000
34250.000000 47250.000000 61250.000000
34750.000000 46750.000000 61250.000000
36250.000000 47750.000000 62750.000000
33250.000000 45250.000000 59750.000000
38250.000000 48750.000000 64750.000000
37750.000000 50250.000000 64750.000000
37750.000000 49750.000000 64750.000000
35750.000000 48750.000000 62750.000000
37750.000000 49250.000000 64750.000000
34250.000000 47750.000000 61250.000000
32250.000000 48250.000000 59750.000000
33750.000000 48750.000000 61250.000000
33750.000000 49250.000000 61250.000000
34250.000000 48250.000000 61250.000000
35750.000000 49250.000000 62750.000000
32750.000000 47250.000000 59750.000000
37250.000000 50750.000000 64750.000000
37250.000000 51750.000000 64750.000000
37250.000000 51750.000000 64750.000000
35250.000000 50250.000000 62750.000000
37250.000000 51250.000000 64750.000000
33750.000000 49750.000000 61250.000000
31750.000000 50250.000000 59750.000000
33250.000000 50750.000000 61250.000000
33250.000000 51250.000000 61250.000000
33750.000000 50250.000000 61250.000000
35250.000000 51250.000000 62750.000000
32250.000000 49250.000000 59750.000000
36750.000000 52250.000000 64750.000000
36750.000000 53750.000000 64750.000000
36750.000000 53250.000000 64750.000000
34750.000000 52250.000000 62750.000000
36750.000000 52750.000000 64750.000000
33250.000000 51750.000000 61250.000000
31250.000000 52250.000000 59750.000000
33250.000000 52750.000000 61250.000000
32750.000000 53250.000000 61250.000000
33250.000000 52250.000000 61250.000000
34750.000000 53250.000000 62750.000000
31750.000000 51250.000000 59750.000000
36750.000000 54250.000000 64750.000000
36250.000000 55750.000000 64750.000000
36250.000000 55250.000000 64750.000000
34750.000000 54250.000000 63250.000000
36750.000000 54750.000000 64750.000000
32750.000000 53750.000000 61250.000000
31250.000000 54250.000000 59750.000000
32750.000000 54750.000000 61250.000000
32750.000000 55250.000000 61250.000000
32750.000000 54250.000000 61250.000000
34250.000000 55250.000000 62750.000000
31250.000000 53250.000000 59750.000000
36250.000000 56250.000000 64750.000000
36250.000000 57250.000000 64750.000000
36250.000000 56750.000000 64750.000000
34250.000000 56250.000000 62750.000000
36250.000000 56250.000000 64750.000000
32750.000000 55750.000000 61250.000000
30750.000000 56750.000000 59750.000000
32750.000000 56750.000000 61250.000000
32250.000000 57250.000000 61250.000000
32750.000000 56250.000000 61250.000000
34250.000000 57250.000000 62750.000000
31250.000000 55750.000000 59750.000000
36250.000000 57750.000000 64750.000000
35750.000000 59250.000000 64750.000000
35750.000000 58750.000000 64750.000000
34250.000000 57750.000000 63250.000000
36250.000000 58250.000000 64750.000000
32250.000000 57750.000000 61250.000000
30750.000000 58750.000000 59750.000000
32250.000000 58750.000000 61250.000000
32250.000000 59250.000000 61250.000000
32250.000000 58250.000000 61250.000000
34250.000000 58750.000000 63250.000000
30750.000000 57750.000000 59750.000000
35750.000000 59750.000000 64750.000000
35750.000000 60750.000000 64750.000000
35750.000000 60250.000000 64750.000000
33750.000000 59750.000000 62750.000000
35750.000000 59750.000000 64750.000000
32250.000000 59750.000000 61250.000000
30750.000000 60750.000000 59750.000000
32250.000000 60750.000000 61250.000000
32250.000000 61250.000000 61250.000000
32250.000000 60250.000000 61250.000000
33750.000000 60750.000000 62750.000000
30750.000000 59750.000000 59750.000000
35750.000000 61250.000000 64750.000000
35250.000000 62750.000000 64750.000000
35750.000000 62250.000000 64750.000000
33750.000000 61750.000000 62750.000000
35750.000000 61750.000000 64750.000000
31750.000000 61750.000000 61250.000000
30250.000000 62750.000000 59750.000000
31750.000000 62750.000000 61250.000000
31750.000000 63250.000000 61250.000000
31750.000000 62250.000000 61250.000000
33750.000000 62750.000000 63250.000000
30250.000000 61750.000000 59750.000000
35250.000000 63250.000000 64750.000000
35250.000000 64250.000000 64750.000000
35250.000000 63750.000000 64750.000000
33750.000000 63750.000000 63250.000000
35250.000000 63750.000000 64750.000000
31750.000000 63750.000000 61250.000000
30250.000000 64750.000000 59750.000000
31750.000000 64750.000000 61250.000000
31750.000000 65250.000000 61250.000000
31750.000000 64250.000000 61250.000000
33250.000000 64750.000000 62750.000000
30250.000000 63750.000000 59750.000000
35250.000000 64750.000000 64750.000000
35250.000000 66250.000000 64750.000000
35250.000000 65750.000000 64750.000000
33250.000000 65250.000000 62750.000000
35250.000000 65250.000000 64750.000000
31750.000000 65750.000000 61250.000000
30250.000000 66750.000000 59750.000000
31750.000000 66750.000000 61250.000000
31750.000000 67250.000000 61250.000000
31750.000000 66250.000000 61250.000000
33250.000000 66250.000000 62750.000000
30250.000000 65750.000000 59750.000000
35250.000000 66750.000000 64750.000000
35250.000000 67750.000000 64750.000000
35250.000000 67250.000000 64750.000000
33250.000000 67250.000000 62750.000000
35250.000000 67250.000000 64750.000000
31750.000000 67750.000000 61250.000000
30250.000000 68750.000000 59750.000000
31750.000000 68750.000000 61250.000000
31750.000000 69250.000000 61250.000000
31750.000000 68250.000000 61250.000000
33250.000000 68250.000000 62750.000000
30250.000000 67750.000000 59750.000000
35250.000000 68250.000000 64750.000000
34750.000000 69750.000000 64250.000000
34750.000000 69250.000000 64250.000000
33250.000000 69250.000000 62750.000000
34750.000000 68750.000000 64250.000000
31750.000000 69750.000000 61250.000000
30250.000000 70750.000000 59750.000000
31750.000000 70750.000000 61250.000000
31750.000000 71250.000000 61250.000000
31750.000000 70250.000000 61250.000000
33250.000000 70250.000000 62750.000000
30250.000000 69750.000000 59750.000000
34750.000000 70250.000000 64250.000000
34750.000000 71250.000000 64250.000000
34750.000000 71250.000000 64250.000000
33250.000000 71250.000000 62750.000000
34750.000000 70750.000000 64750.000000
31750.000000 71250.000000 61250.000000
30250.000000 73250.000000 59750.000000
31750.000000 72250.000000 61250.000000
31750.000000 72750.000000 61250.000000
31750.000000 71750.000000 61250.000000
33250.000000 71750.000000 62750.000000
30250.000000 72250.000000 59750.000000
34750.000000 71750.000000 64250.000000
35250.000000 73250.000000 64750.000000
35250.000000 72750.000000 64750.000000
33250.000000 72750.000000 62750.000000
34750.000000 72250.000000 64250.000000
31750.000000 73250.000000 61250.000000
30750.000000 75250.000000 59750.000000
31750.000000 74250.000000 61250.000000
31750.000000 74750.000000 61250.000000
31750.000000 73750.000000 61250.000000
33250.000000 73750.000000 62750.000000
30250.000000 74250.000000 59750.000000
35250.000000 73750.000000 64750.000000
35250.000000 74750.000000 64750.000000
35250.000000 74750.000000 64750.000000
33250.000000 74750.000000 62750.000000
35250.000000 74250.000000 64750.000000
32250.000000 75750.000000 61250.000000
30750.000000 77250.000000 59750.000000
32250.000000 76250.000000 61250.000000
32250.000000 76750.000000 61250.000000
32250.000000 75750.000000 61250.000000
33750.000000 75750.000000 63250.000000
30750.000000 76250.000000 59750.000000
35250.000000 75250.000000 64750.000000
35250.000000 76750.000000 64750.000000
35250.000000 76250.000000 64750.000000
33750.000000 76750.000000 62750.000000
35250.000000 75750.000000 64750.000000
32250.000000 77250.000000 61250.000000
31250.000000 79250.000000 59750.000000
32250.000000 78250.000000 61250.000000
32750.000000 78750.000000 61250.000000
32250.000000 77750.000000 61250.000000
33750.000000 77250.000000 62750.000000
31250.000000 78250.000000 59750.000000
35250.000000 77250.000000 64250.000000
35750.000000 78250.000000 64750.000000
35750.000000 78250.000000 64750.000000
34250.000000 78250.000000 63250.000000
35750.000000 77750.000000 64750.000000
32750.000000 79250.000000 61250.000000
31750.000000 81250.000000 59750.000000
32750.000000 80250.000000 61250.000000
32750.000000 80750.000000 61250.000000
32750.000000 79750.000000 61250.000000
34250.000000 79250.000000 62750.000000
31250.000000 80250.000000 59750.000000
35750.000000 78750.000000 64750.000000
35750.000000 80250.000000 64250.000000
35750.000000 79750.000000 64750.000000
34250.000000 80250.000000 62750.000000
35750.000000 79250.000000 64750.000000
33250.000000 81250.000000 61250.000000
32250.000000 83250.000000 59750.000000
33250.000000 82250.000000 61250.000000
33250.000000 82750.000000 61250.000000
33250.000000 81750.000000 61250.000000
34750.000000 81250.000000 63250.000000
31750.000000 82250.000000 59750.000000
36250.000000 80750.000000 64750.000000
36250.000000 81750.000000 64750.000000
36250.000000 81250.000000 64750.000000
34750.000000 81750.000000 62750.000000
36250.000000 81250.000000 64750.000000
33750.000000 83250.000000 61250.000000
32750.000000 84750.000000 59750.000000
33750.000000 83750.000000 61250.000000
34250.000000 84250.000000 61250.000000
33750.000000 83250.000000 61250.000000
35250.000000 82750.000000 63250.000000
32250.000000 83750.000000 59750.000000
36750.000000 82250.000000 64750.000000
36750.000000 83250.000000 64750.000000
36750.000000 83250.000000 64750.000000
35250.000000 83750.000000 62750.000000
36750.000000 82750.000000 64750.000000
34250.000000 84750.000000 61250.000000
33750.000000 86750.000000 59750.000000
34750.000000 85750.000000 61250.000000
34750.000000 85750.000000 61250.000000
34250.000000 85250.000000 61250.000000
35750.000000 84750.000000 62750.000000
33250.000000 85750.000000 59750.000000
37250.000000 83750.000000 64750.000000
37750.000000 84750.000000 64750.000000
37250.000000 84250.000000 64750.000000
36250.000000 85250.000000 63250.000000
37250.000000 84250.000000 64750.000000
34750.000000 86250.000000 61250.000000
34750.000000 88250.000000 59750.000000
35750.000000 87250.000000 61250.000000
35750.000000 87250.000000 61250.000000
35250.000000 86750.000000 61250.000000
36750.000000 86250.000000 62750.000000
34250.000000 87250.000000 59750.000000
37750.000000 85250.000000 64250.000000
38750.000000 86250.000000 64750.000000
38250.000000 85750.000000 64750.000000
37250.000000 86750.000000 62750.000000
38250.000000 85250.000000 64750.000000
36250.000000 87750.000000 61250.000000
36250.000000 89750.000000 59750.000000
36750.000000 88250.000000 61250.000000
37250.000000 88750.000000 61250.000000
36750.000000 88250.000000 61250.000000
37750.000000 87250.000000 63250.000000
35250.000000 88750.000000 59750.000000
39250.000000 86250.000000 64750.000000
40250.000000 87250.000000 64750.000000
39750.000000 86750.000000 64750.000000
38250.000000 87750.000000 62750.000000
39250.000000 86750.000000 64750.000000
37750.000000 89250.000000 61250.000000
37250.000000 90750.000000 59750.000000
38250.000000 89750.000000 61250.000000
38750.000000 90250.000000 61250.000000
37750.000000 89250.000000 61250.000000
39250.000000 88750.000000 62750.000000
36750.000000 90250.000000 59750.000000
40250.000000 87750.000000 64250.000000
41250.000000 88250.000000 64750.000000
41250.000000 88250.000000 64750.000000
39750.000000 89250.000000 62750.000000
40750.000000 87750.000000 64750.000000
39250.000000 90250.000000 61250.000000
39250.000000 91750.000000 59750.000000
39750.000000 90750.000000 61250.000000
40250.000000 91250.000000 61250.000000
39250.000000 90250.000000 61250.000000
40750.000000 89750.000000 62750.000000
38250.000000 91250.000000 59750.000000
41750.000000 88250.000000 64750.000000
42750.000000 88750.000000 64750.000000
42750.000000 88750.000000 64750.000000
41250.000000 90250.000000 62750.000000
42250.000000 88750.000000 64750.000000
40750.000000 91250.000000 61250.000000
40750.000000 92750.000000 59750.000000
41750.000000 91750.000000 61250.000000
42250.000000 91750.000000 61250.000000
41250.000000 91250.000000 61250.000000
42250.000000 90250.000000 62750.000000
40250.000000 92250.000000 59750.000000
43250.000000 89250.000000 64250.000000
44750.000000 89750.000000 64250.000000
44250.000000 89250.000000 64750.000000
43250.000000 90750.000000 62750.000000
43750.000000 89250.000000 64750.000000
42250.000000 91750.000000 61250.000000
42750.000000 93250.000000 59750.000000
43250.000000 92250.000000 61250.000000
43750.000000 92250.000000 61250.000000
42750.000000 92250.000000 61250.000000
43750.000000 90750.000000 63250.000000
41750.000000 93250.000000 59750.000000
44750.000000 89750.000000 64250.000000
46250.000000 89750.000000 64750.000000
45750.000000 89750.000000 64750.000000
44750.000000 91250.000000 62750.000000
45250.000000 89750.000000 64750.000000
44250.000000 92250.000000 61250.000000
44750.000000 93750.000000 59750.000000
45250.000000 92750.000000 61250.000000
45750.000000 92750.000000 61250.000000
44750.000000 92750.000000 61250.000000
45750.000000 91250.000000 62750.000000
43750.000000 93750.000000 59750.000000
46750.000000 90250.000000 64250.000000
47750.000000 90250.000000 64750.000000
47750.000000 90250.000000 64750.000000
46750.000000 91250.000000 63250.000000
47250.000000 90250.000000 64750.000000
46250.000000 92750.000000 61250.000000
46750.000000 93750.000000 59750.000000
47250.000000 92750.000000 61250.000000
47750.000000 92750.000000 61250.000000
46750.000000 92750.000000 61250.000000
47250.000000 91750.000000 62750.000000
45750.000000 93750.000000 59750.000000
48250.000000 90250.000000 64750.000000
49750.000000 90250.000000 64750.000000
49250.000000 90250.000000 64750.000000
48250.000000 91750.000000 62750.000000
48750.000000 90250.000000 64750.000000
48250.000000 92750.000000 61250.000000
48750.000000 94250.000000 59750.000000
48750.000000 92750.000000 61250.000000
49750.000000 93250.000000 61250.000000
48750.000000 92750.000000 61250.000000
49250.000000 91750.000000 62750.000000
47750.000000 94250.000000 59750.000000
50250.000000 90250.000000 64750.000000
51250.000000 90250.000000 64750.000000
51250.000000 90250.000000 64750.000000
50250.000000 91750.000000 62750.000000
50750.000000 90250.000000 64750.000000
49750.000000 93250.000000 61250.000000
50750.000000 94250.000000 59750.000000
50750.000000 93250.000000 61250.000000
51750.000000 92750.000000 61250.000000
50250.000000 93250.000000 61250.000000
51250.000000 91750.000000 62750.000000
49750.000000 94250.000000 59750.000000
51750.000000 90250.000000 64750.000000
53250.000000 90250.000000 64750.000000
52750.000000 90250.000000 64750.000000
52250.000000 91750.000000 62750.000000
52250.000000 90250.000000 64750.000000
51750.000000 92750.000000 61250.000000
52750.000000 93750.000000 59750.000000
52750.000000 92750.000000 61250.000000
53250.000000 92750.000000 61250.000000
52250.000000 92750.000000 61250.000000
53250.000000 91750.000000 62750.000000
51750.000000 94250.000000 59750.000000
53750.000000 90250.000000 64750.000000
54750.000000 90250.000000 64750.000000
54750.000000 90250.000000 64750.000000
53750.000000 91750.000000 62750.000000
54250.000000 90250.000000 64750.000000
53750.000000 92750.000000 61250.000000
54750.000000 93750.000000 59750.000000
54750.000000 92750.000000 61250.000000
55250.000000 92750.000000 61250.000000
54250.000000 92750.000000 61250.000000
54750.000000 91750.000000 62750.000000
53750.000000 93750.000000 59750.000000
55250.000000 90250.000000 64750.000000
56750.000000 90250.000000 64250.000000
56250.000000 90250.000000 64750.000000
55750.000000 91250.000000 63250.000000
55750.000000 90250.000000 64750.000000
55750.000000 92750.000000 61250.000000
56750.000000 93250.000000 59750.000000
56750.000000 92250.000000 61250.000000
57250.000000 92250.000000 61250.000000
56250.000000 92750.000000 61250.000000
56750.000000 91250.000000 62750.000000
55750.000000 93750.000000 59750.000000
57250.000000 90250.000000 64250.000000
58250.000000 89750.000000 64750.000000
57750.000000 89750.000000 64750.000000
57750.000000 91250.000000 62750.000000
57750.000000 89750.000000 64750.000000
57750.000000 92250.000000 61250.000000
58750.000000 92750.000000 59750.000000
58750.000000 91750.000000 61250.000000
58750.000000 91750.000000 61250.000000
58250.000000 92250.000000 61250.000000
58750.000000 90750.000000 62750.000000
57750.000000 93250.000000 59750.000000
58750.000000 89750.000000 64750.000000
60250.000000 89250.000000 64750.000000
59750.000000 89250.000000 64750.000000
59250.000000 90750.000000 62750.000000
59250.000000 89750.000000 64250.000000
59250.000000 91750.000000 61250.000000
60250.000000 92250.000000 59750.000000
60250.000000 91250.000000 61250.000000
60750.000000 91250.000000 61250.000000
59750.000000 91750.000000 61250.000000
60250.000000 90250.000000 62750.000000
59250.000000 92750.000000 59750.000000
60250.000000 89250.000000 64750.000000
61750.000000 88750.000000 64750.000000
61250.000000 88750.000000 64750.000000
60750.000000 90250.000000 62750.000000
60750.000000 89250.000000 64250.000000
61250.000000 90750.000000 61250.000000
62250.000000 91250.000000 59750.000000
61750.000000 90750.000000 61250.000000
62250.000000 90750.000000 61250.000000
61250.000000 90750.000000 61250.000000
61750.000000 89750.000000 62750.000000
61250.000000 91750.000000 59750.000000
62250.000000 88750.000000 64250.000000
63250.000000 88250.000000 64250.000000
62750.000000 88250.000000 64750.000000
62750.000000 89250.000000 62750.000000
62750.000000 88250.000000 64750.000000
62750.000000 90250.000000 61250.000000
63750.000000 90250.000000 59750.000000
63250.000000 89750.000000 61250.000000
63750.000000 89750.000000 61250.000000
63250.000000 89750.000000 61250.000000
63250.000000 89250.000000 62750.000000
62750.000000 90750.000000 59750.000000
63750.000000 87750.000000 64750.000000
64750.000000 87250.000000 64750.000000
64250.000000 87750.000000 64250.000000
64250.000000 88750.000000 62750.000000
63750.000000 87750.000000 64750.000000
64250.000000 89250.000000 61250.000000
65250.000000 89250.000000 59750.000000
65250.000000 88750.000000 61250.000000
65250.000000 88750.000000 61250.000000
64750.000000 89250.000000 61250.000000
64750.000000 88250.000000 62750.000000
64250.000000 90250.000000 59750.000000
65250.000000 87250.000000 64250.000000
66250.000000 86250.000000 64750.000000
65750.000000 86750.000000 64250.000000
65750.000000 87750.000000 62750.000000
65750.000000 86750.000000 64250.000000
65750.000000 88250.000000 61250.000000
66750.000000 88250.000000 59750.000000
66250.000000 87750.000000 61250.000000
66750.000000 87750.000000 61250.000000
66250.000000 87750.000000 61250.000000
66250.000000 87250.000000 62750.000000
65750.000000 89250.000000 59750.000000
66250.000000 86250.000000 64750.000000
67250.000000 85750.000000 64250.000000
67250.000000 85750.000000 64250.000000
66750.000000 86750.000000 62750.000000
66750.000000 86250.000000 64250.000000
67250.000000 87250.000000 61250.000000
67750.000000 87250.000000 59750.000000
67750.000000 86750.000000 61250.000000
68250.000000 86250.000000 61250.000000
67250.000000 87250.000000 61250.000000
67750.000000 86250.000000 62750.000000
67250.000000 87750.000000 59750.000000
67750.000000 85250.000000 64750.000000
68750.000000 84750.000000 64250.000000
68250.000000 84750.000000 64750.000000
68250.000000 85750.000000 62750.000000
68250.000000 84750.000000 64750.000000
68250.000000 86250.000000 61250.000000
68750.000000 85750.000000 59750.000000
68750.000000 85750.000000 61250.000000
69250.000000 85250.000000 61250.000000
68750.000000 85750.000000 61250.000000
68750.000000 85250.000000 62750.000000
68250.000000 86250.000000 59750.000000
68750.000000 84250.000000 64750.000000
69750.000000 83250.000000 64750.000000
69750.000000 83750.000000 64250.000000
69250.000000 84750.000000 62750.000000
69250.000000 84250.000000 64250.000000
69250.000000 84750.000000 61250.000000
69750.000000 84250.000000 59750.000000
69750.000000 84250.000000 61250.000000
70250.000000 83750.000000 61250.000000
69250.000000 84750.000000 61250.000000
69750.000000 83750.000000 62750.000000
69250.000000 85250.000000 59750.000000
69750.000000 83250.000000 64750.000000
70750.000000 82250.000000 64250.000000
70250.000000 82750.000000 64250.000000
70250.000000 83250.000000 62750.000000
70250.000000 82750.000000 64250.000000
70250.000000 83750.000000 61250.000000
70250.000000 83250.000000 59750.000000
70250.000000 82750.000000 61250.000000
70250.000000 82750.000000 61250.000000
70250.000000 83250.000000 61250.000000
70750.000000 82750.000000 62750.000000
69750.000000 83750.000000 59250.000000
70750.000000 82250.000000 64250.000000
71250.000000 81250.000000 64250.000000
70750.000000 81750.000000 64250.000000
70750.000000 82250.000000 62750.000000
70750.000000 81750.000000 64250.000000
70750.000000 82250.000000 61250.000000
69750.000000 81750.000000 59250.000000
70750.000000 81750.000000 61250.000000
70250.000000 81250.000000 60750.000000
70750.000000 82250.000000 61250.000000
70750.000000 81750.000000 62750.000000
70250.000000 82750.000000 59750.000000
71250.000000 80750.000000 64250.000000
71250.000000 80250.000000 64250.000000
71250.000000 80250.000000 64250.000000
70750.000000 80750.000000 62750.000000
71250.000000 80750.000000 64250.000000
70250.000000 81250.000000 60750.000000
69250.000000 80750.000000 59250.000000
70250.000000 80750.000000 61250.000000
69750.000000 80250.000000 60750.000000
70250.000000 80750.000000 61250.000000
70750.000000 80250.000000 62750.000000
69750.000000 81250.000000 59250.000000
70750.000000 79750.000000 64250.000000
70750.000000 79250.000000 64250.000000
70750.000000 79750.000000 64250.000000
70250.000000 79750.000000 62750.000000
70750.000000 79750.000000 64250.000000
69750.000000 79750.000000 61250.000000
68750.000000 79750.000000 59750.000000
69250.000000 79250.000000 61250.000000
69250.000000 79250.000000 61250.000000
69750.000000 79750.000000 61250.000000
69750.000000 79250.000000 62750.000000
69250.000000 80250.000000 59750.000000
70250.000000 78750.000000 64250.000000
69750.000000 78250.000000 64250.000000
69750.000000 78250.000000 64250.000000
69250.000000 78750.000000 62750.000000
70250.000000 78750.000000 64250.000000
68750.000000 78750.000000 61250.000000
67250.000000 78750.000000 59250.000000
67750.000000 78250.000000 61250.000000
67750.000000 78250.000000 61250.000000
68250.000000 78750.000000 60750.000000
68750.000000 78250.000000 62750.000000
67750.000000 78750.000000 59750.000000
69250.000000 77750.000000 64250.000000
68250.000000 77250.000000 64250.000000
68750.000000 77750.000000 64250.000000
68250.000000 77750.000000 62750.000000
68750.000000 77750.000000 64250.000000
67250.000000 77750.000000 61250.000000
65250.000000 77250.000000 59250.000000
66250.000000 77250.000000 61250.000000
66250.000000 77250.000000 61250.000000
66750.000000 77750.000000 60750.000000
67250.000000 77250.000000 62750.000000
66250.000000 77750.000000 59750.000000
68250.000000 77250.000000 64250.000000
66750.000000 76250.000000 64250.000000
67250.000000 76750.000000 64250.000000
66750.000000 76750.000000 62750.000000
67750.000000 76750.000000 64250.000000
65750.000000 76750.000000 61250.000000
63750.000000 76250.000000 59250.000000
64750.000000 76250.000000 61250.000000
64250.000000 75750.000000 61250.000000
65250.000000 76250.000000 61250.000000
65750.000000 76250.000000 62750.000000
64750.000000 76750.000000 59750.000000
66250.000000 76250.000000 64250.000000
65250.000000 75250.000000 64250.000000
65750.000000 75750.000000 64250.000000
64750.000000 75750.000000 62750.000000
66250.000000 76250.000000 64250.000000
64250.000000 75750.000000 61250.000000
62250.000000 75250.000000 59250.000000
63250.000000 75250.000000 61250.000000
62750.000000 74750.000000 61250.000000
63750.000000 75250.000000 61250.000000
64250.000000 75250.000000 62750.000000
63250.000000 75750.000000 59750.000000
64750.000000 75250.000000 64250.000000
63750.000000 74750.000000 64250.000000
64250.000000 74750.000000 64250.000000
63250.000000 74750.000000 62750.000000
64750.000000 75250.000000 64250.000000
62250.000000 74750.000000 60750.000000
60250.000000 73750.000000 59250.000000
61750.000000 74250.000000 61250.000000
61250.000000 73750.000000 61250.000000
61750.000000 74250.000000 61250.000000
62750.000000 74250.000000 62750.000000
61250.000000 74250.000000 59750.000000
63250.000000 74250.000000 64250.000000
62250.000000 73750.000000 64250.000000
62750.000000 74250.000000 64250.000000
61750.000000 73750.000000 62750.000000
62750.000000 74250.000000 64250.000000
60750.000000 73750.000000 60750.000000
58750.000000 72250.000000 59750.000000
59750.000000 72750.000000 61250.000000
59750.000000 72750.000000 61250.000000
60250.000000 73250.000000 61250.000000
60750.000000 73250.000000 62750.000000
59750.000000 73250.000000 59750.000000
61750.000000 73250.000000 64250.000000
60250.000000 72750.000000 64250.000000
61250.000000 73250.000000 64250.000000
60250.000000 72750.000000 62750.000000
61250.000000 73250.000000 64250.000000
58750.000000 72250.000000 61250.000000
57250.000000 71250.000000 59750.000000
58250.000000 71750.000000 61250.000000
57750.000000 71250.000000 61250.000000
58750.000000 72250.000000 61250.000000
59250.000000 72250.000000 62750.000000
57750.000000 71750.000000 59750.000000
60250.000000 72750.000000 64250.000000
58750.000000 71750.000000 64250.000000
59750.000000 72250.000000 64250.000000
58750.000000 71750.000000 62750.000000
59750.000000 72250.000000 64250.000000
57750.000000 71250.000000 61250.000000
55250.000000 69750.000000 59750.000000
56750.000000 70750.000000 61250.000000
56250.000000 70250.000000 61250.000000
57250.000000 70750.000000 61250.000000
57750.000000 71250.000000 62750.000000
56250.000000 70750.000000 59250.000000
58750.000000 71750.000000 64250.000000
57750.000000 70750.000000 64750.000000
58250.000000 71250.000000 64750.000000
57250.000000 70750.000000 62750.000000
58250.000000 71250.000000 64750.000000
56250.000000 70250.000000 61250.000000
54250.000000 68750.000000 59750.000000
55250.000000 69250.000000 61250.000000
54750.000000 68750.000000 61250.000000
55750.000000 69750.000000 61250.000000
56750.000000 70250.000000 62750.000000
54750.000000 69250.000000 59750.000000
57250.000000 70250.000000 64750.000000
56250.000000 69750.000000 64250.000000
56750.000000 69750.000000 64750.000000
55750.000000 69250.000000 62750.000000
57250.000000 70250.000000 64750.000000
54750.000000 68750.000000 61250.000000
52750.000000 67250.000000 59250.000000
54250.000000 68250.000000 61250.000000
53750.000000 67750.000000 61250.000000
54250.000000 68250.000000 61250.000000
55250.000000 68750.000000 62750.000000
53250.000000 67750.000000 59750.000000
56250.000000 69250.000000 64750.000000
55250.000000 68750.000000 64250.000000
55750.000000 68750.000000 64750.000000
54750.000000 68250.000000 62750.000000
55750.000000 69250.000000 64250.000000
53250.000000 67250.000000 61250.000000
51750.000000 65750.000000 59750.000000
52750.000000 66750.000000 61250.000000
52750.000000 66750.000000 61250.000000
53250.000000 67250.000000 61250.000000
54250.000000 67750.000000 63250.000000
52250.000000 66250.000000 59750.000000
55250.000000 68250.000000 64750.000000
54250.000000 67250.000000 64750.000000
54750.000000 67750.000000 64750.000000
53750.000000 67250.000000 63250.000000
54750.000000 67750.000000 64750.000000
52750.000000 66250.000000 61750.000000
50750.000000 64250.000000 60250.000000
52250.000000 65750.000000 61750.000000
51750.000000 65250.000000 61750.000000
52250.000000 65750.000000 61750.000000
53250.000000 66750.000000 63250.000000
51250.000000 65250.000000 59750.000000
54250.000000 67250.000000 64750.000000
53250.000000 66250.000000 64750.000000
53250.000000 66250.000000 64750.000000
52750.000000 65750.000000 63250.000000
53750.000000 66750.000000 64750.000000
51250.000000 64750.000000 61250.000000
49750.000000 62750.000000 59750.000000
50750.000000 63750.000000 61250.000000
50250.000000 63250.000000 61250.000000
51250.000000 64250.000000 61250.000000
51750.000000 64750.000000 62750.000000
50250.000000 63750.000000 59750.000000
52750.000000 65750.000000 64750.000000
51750.000000 64250.000000 64250.000000
52250.000000 64750.000000 64250.000000
51250.000000 64250.000000 62750.000000
52750.000000 65250.000000 64250.000000
50250.000000 63250.000000 61250.000000
48250.000000 60750.000000 59250.000000
49750.000000 62250.000000 60750.000000
49250.000000 61750.000000 60750.000000
49750.000000 62750.000000 60750.000000
50750.000000 63250.000000 62750.000000
48750.000000 61750.000000 59250.000000
51750.000000 64250.000000 64250.000000
50250.000000 62250.000000 63250.000000
50750.000000 62750.000000 63750.000000
50250.000000 62250.000000 62250.000000
51250.000000 63750.000000 63750.000000
48750.000000 61250.000000 60250.000000
47250.000000 58750.000000 59250.000000
48250.000000 60250.000000 60250.000000
48250.000000 59750.000000 60750.000000
48750.000000 60750.000000 60750.000000
49250.000000 61250.000000 61750.000000
47750.000000 59750.000000 59250.000000
50250.000000 62250.000000 63250.000000
50250.000000 61750.000000 64250.000000
49250.000000 60750.000000 62250.000000
50250.000000 62250.000000 63750.000000
40750.000000 50250.000000 50250.000000
42750.000000 52750.000000 52750.000000
42250.000000 51750.000000 52250.000000
43250.000000 53750.000000 52750.000000
44250.000000 54750.000000 54750.000000
42250.000000 52250.000000 50750.000000
43750.000000 54250.000000 53250.000000
45750.000000 56750.000000 57250.000000
45250.000000 56250.000000 56750.000000
45250.000000 55250.000000 57750.000000
45250.000000 55750.000000 57250.000000
43750.000000 53750.000000 54750.000000
45250.000000 55750.000000 57250.000000
41750.000000 51250.000000 52750.000000
39750.000000 48750.000000 50750.000000
41750.000000 51250.000000 53250.000000
41750.000000 50750.000000 53250.000000
41750.000000 51250.000000 52750.000000
43250.000000 53250.000000 55250.000000
40250.000000 49250.000000 50250.000000
44750.000000 54750.000000 58250.000000
42750.000000 52250.000000 56250.000000
43750.000000 53250.000000 56750.000000
42250.000000 51750.000000 55250.000000
44250.000000 54250.000000 57250.000000
40750.000000 49750.000000 52750.000000
38750.000000 47250.000000 51250.000000
40250.000000 49250.000000 52750.000000
39750.000000 48750.000000 52750.000000
40250.000000 49250.000000 52750.000000
41750.000000 50750.000000 54750.000000
39750.000000 48250.000000 51250.000000
42750.000000 52250.000000 56250.000000
42750.000000 51750.000000 57250.000000
42750.000000 51750.000000 56750.000000
41250.000000 50250.000000 54750.000000
42750.000000 52250.000000 56750.000000
39750.000000 48750.000000 52750.000000
37750.000000 45750.000000 51250.000000
39250.000000 47750.000000 53250.000000
39250.000000 47750.000000 53250.000000
39750.000000 48250.000000 53250.000000
40750.000000 49750.000000 55250.000000
38250.000000 46750.000000 51250.000000
42250.000000 51250.000000 57250.000000
41750.000000 50250.000000 57250.000000
41750.000000 50750.000000 57250.000000
40750.000000 49250.000000 55250.000000
41750.000000 50750.000000 57250.000000
38750.000000 47250.000000 53250.000000
36750.000000 44750.000000 51750.000000
38750.000000 46750.000000 53750.000000
38250.000000 46250.000000 53750.000000
38750.000000 47250.000000 53250.000000
39750.000000 48250.000000 55250.000000
37250.000000 45250.000000 51250.000000
41250.000000 49750.000000 57250.000000
40750.000000 48750.000000 57750.000000
40750.000000 48750.000000 57750.000000
39750.000000 47750.000000 55750.000000
41250.000000 49750.000000 57750.000000
37750.000000 45750.000000 53750.000000
35750.000000 43250.000000 51750.000000
37750.000000 45250.000000 53750.000000
37250.000000 44750.000000 53750.000000
37750.000000 45750.000000 53750.000000
39250.000000 47250.000000 55750.000000
36250.000000 44250.000000 51250.000000
40250.000000 48250.000000 57250.000000
39750.000000 47250.000000 57250.000000
40250.000000 47750.000000 57750.000000
38750.000000 46250.000000 55750.000000
40250.000000 48250.000000 57250.000000
37250.000000 44750.000000 53750.000000
34750.000000 42250.000000 51750.000000
36750.000000 44250.000000 53750.000000
36250.000000 43750.000000 53250.000000
36750.000000 44250.000000 53750.000000
38250.000000 45750.000000 55250.000000
35250.000000 42750.000000 51750.000000
39750.000000 46750.000000 57750.000000
39250.000000 45750.000000 57750.000000
39250.000000 46250.000000 57250.000000
37750.000000 44750.000000 55750.000000
39750.000000 46750.000000 57750.000000
36250.000000 43250.000000 53750.000000
34250.000000 41750.000000 51750.000000
35750.000000 42750.000000 53750.000000
35750.000000 42750.000000 53750.000000
36250.000000 43250.000000 53750.000000
37250.000000 44250.000000 55250.000000
34250.000000 41750.000000 51750.000000
38750.000000 45250.000000 57750.000000
38250.000000 44750.000000 57250.000000
38750.000000 45250.000000 57750.000000
37250.000000 43750.000000 55750.000000
38750.000000 45250.000000 57750.000000
35250.000000 42250.000000 53750.000000
33250.000000 40750.000000 51750.000000
35250.000000 42250.000000 53750.000000
34750.000000 41750.000000 53750.000000
35250.000000 42250.000000 53750.000000
36750.000000 43250.000000 55750.000000
33750.000000 41250.000000 51750.000000
38250.000000 44250.000000 57750.000000
37750.000000 43750.000000 57250.000000
37750.000000 43750.000000 57250.000000
36250.000000 42750.000000 55750.000000
38250.000000 44250.000000 57750.000000
34750.000000 41750.000000 53750.000000
32250.000000 40250.000000 51750.000000
34250.000000 41250.000000 53750.000000
34250.000000 41250.000000 53750.000000
34750.000000 41750.000000 53750.000000
36250.000000 42750.000000 55750.000000
32750.000000 40750.000000 51250.000000
37250.000000 43250.000000 57250.000000
37250.000000 42750.000000 57750.000000
37250.000000 42750.000000 57750.000000
35750.000000 42250.000000 55750.000000
37250.000000 43250.000000 57250.000000
33750.000000 41250.000000 53750.000000
31750.000000 40250.000000 51750.000000
33750.000000 41250.000000 53750.000000
33250.000000 40750.000000 53750.000000
33750.000000 41250.000000 53750.000000
35250.000000 41750.000000 55750.000000
32250.000000 40250.000000 51750.000000
36750.000000 42750.000000 57250.000000
36250.000000 41750.000000 57750.000000
36750.000000 42250.000000 57750.000000
35250.000000 41750.000000 55750.000000
36750.000000 42250.000000 57750.000000
33250.000000 40750.000000 53750.000000
30750.000000 40250.000000 51750.000000
32750.000000 40750.000000 53750.000000
32750.000000 40750.000000 53750.000000
32750.000000 40750.000000 53750.000000
34750.000000 41250.000000 55750.000000
31250.000000 40250.000000 51750.000000
36250.000000 41750.000000 57750.000000
35750.000000 41750.000000 57750.000000
35750.000000 41750.000000 57750.000000
34250.000000 41250.000000 55750.000000
35750.000000 41750.000000 57750.000000
32250.000000 40750.000000 53750.000000
30250.000000 40750.000000 51750.000000
31750.000000 41250.000000 53750.000000
31750.000000 41250.000000 53750.000000
32250.000000 40750.000000 53750.000000
33750.000000 41250.000000 55750.000000
30750.000000 40750.000000 51750.000000
35750.000000 41750.000000 57750.000000
34250.000000 41750.000000 57750.000000
34750.000000 41250.000000 57750.000000
33250.000000 41250.000000 55750.000000
35250.000000 41250.000000 57750.000000
31250.000000 41250.000000 53750.000000
29250.000000 41750.000000 51750.000000
30750.000000 41750.000000 53750.000000
30750.000000 41750.000000 53750.000000
31250.000000 41250.000000 53750.000000
32750.000000 41750.000000 55750.000000
29750.000000 41250.000000 51750.000000
34250.000000 41750.000000 57750.000000
33750.000000 42250.000000 57750.000000
33750.000000 42250.000000 57750.000000
32250.000000 41750.000000 55750.000000
34250.000000 41750.000000 57750.000000
30250.000000 42250.000000 53750.000000
28250.000000 42750.000000 51750.000000
29750.000000 42750.000000 53750.000000
29750.000000 43250.000000 53750.000000
30250.000000 42250.000000 53750.000000
31750.000000 42250.000000 55750.000000
28750.000000 42250.000000 51750.000000
33250.000000 42750.000000 57750.000000
32750.000000 43250.000000 57750.000000
32750.000000 43250.000000 57750.000000
31250.000000 43250.000000 55750.000000
33250.000000 42750.000000 57750.000000
29750.000000 43250.000000 53750.000000
27250.000000 44750.000000 51750.000000
29250.000000 44250.000000 53750.000000
28750.000000 44750.000000 53750.000000
29250.000000 43750.000000 53750.000000
30750.000000 43750.000000 55750.000000
27750.000000 43750.000000 51750.000000
32250.000000 43750.000000 57750.000000
31750.000000 44750.000000 57750.000000
32250.000000 44250.000000 57750.000000
30750.000000 44250.000000 55750.000000
32250.000000 44250.000000 57750.000000
28750.000000 44750.000000 53750.000000
26750.000000 46250.000000 51750.000000
28250.000000 46250.000000 53750.000000
28250.000000 46750.000000 53750.000000
28750.000000 45250.000000 53750.000000
30250.000000 45250.000000 55750.000000
26750.000000 45750.000000 51750.000000
31750.000000 45250.000000 57750.000000
31250.000000 46750.000000 57750.000000
31250.000000 46250.000000 57750.000000
29750.000000 46250.000000 55750.000000
31750.000000 45750.000000 57750.000000
28250.000000 46750.000000 53750.000000
25750.000000 48750.000000 51750.000000
27750.000000 48250.000000 53750.000000
27250.000000 48750.000000 53750.000000
27750.000000 47750.000000 53750.000000
29250.000000 47250.000000 55750.000000
26250.000000 47750.000000 51750.000000
31250.000000 47250.000000 57750.000000
30750.000000 48750.000000 57750.000000
30750.000000 48250.000000 57750.000000
29250.000000 48250.000000 55750.000000
30750.000000 47750.000000 57750.000000
27250.000000 49250.000000 53750.000000
25250.000000 51250.000000 51750.000000
27250.000000 50250.000000 53750.000000
26750.000000 50750.000000 53750.000000
27250.000000 49750.000000 53750.000000
28750.000000 49750.000000 55750.000000
25750.000000 49750.000000 51750.000000
30250.000000 49750.000000 57750.000000
30250.000000 51250.000000 57750.000000
30250.000000 50750.000000 57750.000000
28750.000000 50750.000000 55750.000000
30250.000000 50250.000000 57750.000000
26750.000000 51250.000000 53750.000000
24750.000000 53250.000000 51750.000000
26750.000000 52750.000000 53750.000000
26750.000000 53250.000000 53750.000000
26750.000000 52250.000000 53750.000000
28250.000000 51750.000000 55750.000000
25250.000000 52250.000000 51750.000000
29750.000000 51750.000000 57750.000000
29750.000000 53250.000000 57750.000000
29750.000000 52750.000000 57750.000000
28250.000000 52750.000000 55750.000000
29750.000000 52250.000000 57750.000000
26250.000000 53750.000000 53750.000000
24750.000000 55750.000000 51750.000000
26250.000000 54750.000000 53750.000000
26250.000000 55750.000000 53750.000000
26250.000000 54250.000000 53750.000000
27750.000000 54250.000000 55750.000000
24750.000000 54750.000000 51750.000000
29750.000000 53750.000000 57750.000000
29250.000000 55250.000000 57750.000000
29250.000000 54750.000000 57750.000000
27750.000000 55250.000000 55750.000000
29750.000000 54250.000000 57750.000000
26250.000000 56250.000000 53750.000000
24250.000000 58250.000000 51750.000000
26250.000000 57250.000000 53750.000000
25750.000000 57750.000000 53750.000000
26250.000000 56750.000000 53750.000000
27750.000000 56250.000000 55750.000000
24750.000000 56750.000000 51750.000000
29250.000000 55750.000000 57750.000000
29250.000000 57250.000000 57750.000000
29250.000000 56750.000000 57750.000000
27750.000000 57250.000000 55750.000000
29250.000000 56250.000000 57750.000000
25750.000000 58250.000000 53750.000000
24250.000000 60250.000000 51750.000000
25750.000000 59250.000000 53750.000000
25750.000000 60250.000000 53750.000000
25750.000000 58750.000000 53750.000000
27750.000000 58250.000000 55750.000000
24250.000000 59250.000000 51750.000000
29250.000000 58250.000000 57750.000000
29250.000000 59750.000000 57750.000000
29250.000000 59250.000000 57750.000000
27250.000000 59750.000000 55750.000000
29250.000000 58750.000000 57750.000000
25750.000000 60750.000000 53750.000000
24250.000000 62750.000000 51750.000000
25750.000000 61750.000000 53750.000000
25750.000000 62250.000000 53750.000000
25750.000000 61250.000000 53750.000000
27250.000000 60750.000000 55750.000000
24250.000000 61750.000000 51750.000000
28750.000000 60250.000000 57750.000000
28750.000000 61750.000000 57750.000000
28750.000000 61250.000000 57750.000000
27250.000000 61750.000000 55750.000000
28750.000000 60750.000000 57750.000000
25750.000000 62750.000000 53750.000000
24250.000000 65250.000000 51750.000000
25750.000000 64250.000000 53750.000000
25750.000000 64750.000000 53750.000000
25750.000000 63250.000000 53750.000000
27250.000000 62750.000000 55750.000000
24250.000000 64250.000000 51750.000000
28750.000000 62250.000000 57750.000000
28750.000000 63750.000000 57750.000000
28750.000000 63250.000000 57750.000000
27250.000000 64250.000000 55750.000000
28750.000000 62750.000000 57750.000000
25750.000000 65250.000000 53750.000000
24250.000000 67750.000000 51750.000000
25750.000000 66250.000000 53750.000000
25750.000000 66750.000000 53750.000000
25750.000000 65750.000000 53750.000000
27250.000000 65250.000000 55750.000000
24250.000000 66250.000000 51750.000000
28750.000000 64750.000000 57750.000000
28750.000000 66250.000000 57750.000000
28750.000000 65750.000000 57750.000000
27250.000000 66250.000000 55750.000000
28750.000000 65250.000000 57750.000000
25750.000000 67250.000000 53750.000000
24250.000000 69750.000000 51750.000000
25750.000000 68750.000000 53750.000000
25750.000000 69250.000000 53750.000000
25750.000000 68250.000000 53750.000000
27250.000000 67250.000000 55750.000000
24250.000000 68750.000000 51750.000000
28750.000000 66750.000000 57750.000000
28750.000000 68250.000000 57750.000000
28750.000000 67750.000000 57750.000000
27250.000000 68250.000000 55750.000000
28750.000000 67250.000000 57750.000000
25750.000000 69750.000000 53750.000000
24250.000000 72250.000000 51750.000000
25750.000000 70750.000000 53750.000000
25750.000000 71250.000000 53750.000000
25750.000000 70250.000000 53750.000000
27250.000000 69750.000000 55750.000000
24250.000000 71250.000000 51750.000000
28750.000000 68750.000000 57750.000000
28750.000000 70250.000000 57750.000000
28750.000000 69750.000000 57750.000000
27250.000000 70750.000000 55750.000000
28750.000000 69250.000000 57750.000000
25750.000000 71750.000000 53750.000000
24750.000000 74750.000000 51750.000000
25750.000000 73250.000000 53750.000000
25750.000000 73750.000000 53750.000000
25750.000000 72750.000000 53750.000000
27250.000000 71750.000000 55750.000000
24250.000000 73250.000000 51750.000000
28750.000000 70750.000000 57750.000000
28750.000000 72250.000000 57750.000000
28750.000000 71750.000000 57750.000000
27250.000000 72750.000000 55750.000000
28750.000000 71250.000000 57750.000000
26250.000000 74250.000000 53750.000000
24750.000000 76750.000000 51750.000000
26250.000000 75250.000000 53750.000000
26250.000000 75750.000000 53750.000000
26250.000000 74750.000000 53750.000000
27250.000000 73750.000000 55750.000000
24750.000000 75750.000000 51750.000000
28750.000000 72750.000000 57750.000000
29250.000000 74750.000000 57750.000000
28750.000000 73750.000000 57750.000000
27750.000000 74750.000000 55750.000000
28750.000000 73250.000000 57750.000000
26250.000000 76250.000000 53750.000000
25250.000000 78750.000000 51750.000000
26750.000000 77250.000000 53750.000000
26750.000000 78250.000000 53750.000000
26250.000000 76750.000000 53750.000000
27750.000000 75750.000000 55750.000000
25250.000000 77750.000000 51750.000000
29250.000000 75250.000000 57750.000000
29250.000000 76750.000000 57750.000000
29250.000000 76250.000000 57750.000000
27750.000000 77250.000000 55750.000000
29250.000000 75750.000000 57750.000000
26750.000000 78750.000000 53750.000000
25750.000000 81250.000000 51750.000000
27250.000000 79750.000000 53750.000000
27250.000000 80250.000000 53750.000000
26750.000000 79250.000000 53750.000000
28250.000000 78250.000000 55750.000000
25750.000000 80250.000000 51750.000000
29250.000000 77250.000000 57750.000000
29750.000000 78750.000000 57750.000000
29750.000000 78250.000000 57750.000000
28250.000000 79250.000000 55750.000000
29750.000000 77750.000000 57750.000000
27250.000000 80750.000000 53750.000000
26750.000000 83250.000000 51750.000000
27750.000000 81750.000000 53750.000000
27750.000000 82250.000000 53750.000000
27250.000000 81250.000000 53750.000000
28750.000000 80250.000000 55750.000000
26250.000000 82250.000000 51750.000000
29750.000000 79250.000000 57750.000000
30250.000000 80750.000000 57750.000000
30250.000000 80250.000000 57750.000000
28750.000000 81250.000000 55750.000000
29750.000000 79750.000000 57750.000000
27750.000000 82750.000000 53750.000000
27250.000000 85750.000000 51750.000000
28250.000000 83750.000000 53750.000000
28750.000000 84750.000000 53750.000000
28250.000000 83250.000000 53750.000000
29250.000000 82250.000000 55750.000000
26750.000000 84250.000000 51750.000000
30250.000000 81250.000000 57750.000000
30750.000000 82750.000000 57750.000000
30750.000000 82250.000000 57750.000000
29750.000000 83250.000000 55750.000000
30250.000000 81750.000000 57750.000000
28750.000000 84750.000000 53750.000000
28250.000000 87750.000000 51750.000000
29250.000000 86250.000000 53750.000000
29250.000000 86250.000000 53750.000000
28750.000000 85250.000000 53750.000000
29750.000000 84250.000000 55750.000000
27750.000000 86750.000000 51750.000000
30750.000000 83250.000000 57750.000000
31250.000000 84750.000000 57750.000000
31250.000000 84250.000000 57750.000000
30250.000000 85250.000000 55750.000000
31250.000000 83750.000000 57750.000000
29250.000000 86750.000000 53750.000000
29250.000000 89750.000000 51750.000000
29750.000000 87750.000000 53750.000000
30250.000000 88250.000000 53750.000000
29750.000000 87250.000000 53750.000000
30750.000000 86250.000000 55750.000000
28750.000000 88750.000000 51750.000000
31750.000000 85250.000000 57750.000000
32250.000000 86750.000000 57750.000000
31750.000000 86250.000000 57750.000000
31250.000000 87250.000000 55750.000000
31750.000000 85750.000000 57750.000000
30250.000000 88750.000000 53750.000000
30250.000000 91250.000000 51750.000000
30750.000000 89750.000000 53750.000000
31250.000000 90250.000000 53750.000000
30750.000000 89250.000000 53750.000000
31750.000000 88250.000000 55750.000000
29750.000000 90750.000000 51750.000000
32250.000000 86750.000000 57750.000000
33250.000000 88250.000000 57750.000000
32750.000000 87750.000000 57750.000000
32250.000000 89250.000000 55750.000000
